# .PCD v0.7 - Point Cloud Data file format
VERSION 0.7
FIELDS x y z
SIZE 4 4 4
TYPE F F F
COUNT 1 1 1
WIDTH 1477
HEIGHT 1
VIEWPOINT 0 0 0 1 0 0 0
POINTS 1477
DATA ascii
-2.020314 6.2737203 0.11504627
-1.4961233 4.6487212 -1.1274546
-1.9679614 6.1184778 0.33683425
-1.7060238 5.3041024 -1.0830319
-1.9035672 5.9218087 0.54420048
-1.7817628 5.5462098 -0.92265058
-1.8866444 5.8762116 0.75778365
-1.7904003 5.579783 -0.71951669
-1.8922591 5.9007754 0.98146993
-1.7929597 5.5911222 -0.5136959
-1.9023921 5.9359369 1.2116373
-1.937947 6.0504994 -0.33296138
-1.9872683 6.2082267 1.5049226
-1.9351469 6.0490351 -0.11085769
-1.3121924 4.1215744 -1.1589917
-1.9965817 6.2750187 0.11494155
-1.4846102 4.6687727 -1.1310539
-1.9520375 6.1424403 0.3377763
-1.7029598 5.3586721 -1.0929539
-1.8804706 5.9208221 0.54350317
-1.7594029 5.5429826 -0.92108625
-1.8697236 5.894114 0.75924611
-1.7715107 5.5878916 -0.71976036
-1.8615084 5.8753314 0.97615117
-1.7722297 5.5935478 -0.51334733
-1.884032 5.950027 1.2131636
-1.9192237 6.0648446 -0.33338007
-1.9655869 6.2151251 1.5049226
-1.9104054 6.0443125 -0.11064825
-1.6705886 5.2887702 1.4861389
-1.2977983 4.1261292 -1.1589917
-1.9764661 6.287672 0.11504627
-1.4659688 4.6664896 -1.1292543
-1.9317822 6.1530275 0.33798563
-1.6913021 5.3870611 -1.0975335
-1.8580008 5.921648 0.54298031
-1.7359071 5.5358953 -0.91889614
-1.8485456 5.8987103 0.75900233
-1.7508066 5.5902534 -0.71927297
-1.8421699 5.8855639 0.97677696
-1.7491242 5.5882912 -0.51230145
-1.8632523 5.9565668 1.2131636
-1.9010197 6.081039 -0.33390343
-1.9444625 6.2238083 1.5053725
-1.8833367 6.0318561 -0.11029921
-1.6486632 5.283505 1.4830333
-1.2810936 4.1232553 -1.1569211
-1.9509463 6.2830749 0.11483683
-1.4508247 4.6753011 -1.1301541
-1.9126573 6.1673641 0.33840433
-1.6736491 5.3966823 -1.0982966
-1.8361405 5.9242907 0.54263163
-1.7253382 5.5702252 -0.92358917
-1.8273554 5.9032311 0.7587586
-1.7330436 5.6020198 -0.72000414
-1.822196 5.8938456 0.97708976
-1.7278397 5.5886526 -0.51177853
-1.8354923 5.940526 1.2085842
-1.8762472 6.0761876 -0.33327541
-1.9232982 6.23242 1.5058223
-1.8858414 6.1148286 -0.1116954
-1.6296422 5.2873807 1.4825156
-1.2644268 4.1203146 -1.1548507
-1.9266583 6.2821989 0.11469722
-1.4299285 4.665431 -1.126555
-1.8893639 6.1682739 0.33809033
-1.6536521 5.398737 -1.0975335
-1.8160342 5.9325686 0.54280597
-1.7185982 5.6177707 -0.93047231
-1.8055784 5.905776 0.7582711
-1.7134794 5.6080346 -0.72000414
-1.8044974 5.9096169 0.97865415
-1.710068 5.6003666 -0.51230145
-1.8158922 5.9506521 1.2093475
-1.8515315 6.0712371 -0.33264738
-1.9021008 6.2409596 1.5062722
-1.9413966 6.3738809 -0.11630284
-1.2567589 4.1468887 -1.1610622
-1.9070346 6.2965422 0.11483683
-1.4181517 4.6853151 -1.1301541
-1.8967332 6.2704177 0.34332392
-1.630248 5.3894429 -1.0944804
-1.7958896 5.9407797 0.54298031
-1.6995506 5.6256261 -0.93078518
-1.7849509 5.9120436 0.7582711
-1.6898777 5.6006784 -0.71829796
-1.7810047 5.9064236 0.97708976
-1.6916574 5.6101174 -0.51265007
-1.8280222 6.0700135 -0.33222869
-1.8752481 6.2307673 1.5022231
-1.9237417 6.3959389 -0.11658207
-1.6616467 5.528039 1.5467027
-1.2400615 4.1438475 -1.1589917
-1.8844723 6.3012438 0.11480194
-1.3939747 4.6640973 -1.1238555
-1.8771216 6.2846546 0.34374261
-1.6181691 5.4176745 -1.0990598
-1.7751427 5.9470115 0.54298031
-1.6799018 5.631525 -0.93078518
-1.762036 5.9106288 0.75729614
-1.6703186 5.6065426 -0.71829796
-1.7586869 5.9069242 0.97615117
-1.6716534 5.6181889 -0.51282436
-1.8706062 6.2868404 1.2749858
-1.8085318 6.0821004 -0.33254269
-1.8540437 6.2391424 1.502673
-1.2193955 4.1298366 -1.1538154
-1.8635992 6.3116188 0.11487174
-1.3854053 4.6951022 -1.1301541
-1.8568685 6.2969155 0.34405661
-1.5883107 5.3896728 -1.0921907
-1.7516437 5.9477448 0.54245734
-1.6581355 5.6338539 -0.93015939
-1.7458783 5.9319777 0.75924611
-1.6529771 5.6199579 -0.71927297
-1.7386125 5.9149227 0.97646403
-1.6486641 5.6125197 -0.51177853
-1.8442317 6.2823529 1.2726961
-1.7873503 6.0925217 -0.33275205
-1.8339062 6.2552457 1.5049226
-1.7946573 6.1213727 -0.11134635
-1.2082146 4.1451964 -1.1569211
-1.8370963 6.3068881 0.11466231
-1.3649207 4.6889215 -1.1274546
-1.8354335 6.3052769 0.34416127
-1.5694886 5.3951836 -1.0921907
-1.7314291 5.9557357 0.54263163
-1.6351516 5.6282268 -0.92828226
-1.7241234 5.9383373 0.75924611
-1.6327974 5.6237864 -0.71902919
-1.7174059 5.9190583 0.97615117
-1.6279516 5.6144142 -0.51142991
-1.8233851 6.2925234 1.2734593
-1.7655184 6.0968046 -0.33264738
-1.8136933 6.263165 1.5053725
-1.7855068 6.1698604 -0.11211426
-1.5655624 5.4133744 1.5099503
-1.194463 4.1491795 -1.1569211
-1.8172787 6.3167882 0.11473212
-1.3472112 4.6859303 -1.1256551
-1.8156191 6.315167 0.34437063
-1.5515875 5.4003587 -1.0921907
-1.7127705 5.9652743 0.54298031
-1.6170247 5.6355162 -0.92859513
-1.6989484 5.9249406 0.7568087
-1.6157792 5.6348948 -0.71976036
-1.7015785 5.9380131 0.97834122
-1.6093256 5.6197815 -0.51142991
-1.8014264 6.2947612 1.2726961
-1.7343059 6.0642209 -0.33055395
-1.7913047 6.2635245 1.5040227
-1.7551472 6.1411386 -0.11148597
-1.5486619 5.4222517 1.5109856
-1.1775265 4.1419687 -1.1538154
-1.7957735 6.320857 0.11469722
-1.3274057 4.6753755 -1.1220559
-1.788656 6.3041739 0.34342858
-1.5390304 5.4243612 -1.096007
-1.6951518 5.9785891 0.54367751
-1.6004803 5.6484504 -0.92984658
-1.6792923 5.9305415 0.7568087
-1.5928581 5.6290398 -0.71829796
-1.6776137 5.9325118 0.97646403
-1.5906794 5.6250877 -0.51142991
-1.7816113 6.3044777 1.2734593
-1.7141877 6.0699382 -0.33055395
-1.7195854 6.097188 -0.11057845
-1.5307746 5.4313431 1.5120209
-1.1661925 4.1572137 -1.1569211
-1.7753193 6.3328629 0.11480194
-1.3142325 4.6912384 -1.1247553
-1.7698715 6.3219194 0.34405661
-1.5211462 5.4334807 -1.0967702
-1.6726632 5.978713 0.5431546
-1.5796911 5.650197 -0.9292208
-1.6607184 5.9440145 0.75778365
-1.5732005 5.6345654 -0.71829796
-1.6579583 5.9421368 0.97708976
-1.5721065 5.6344433 -0.51177853
-1.7595921 6.3106589 1.2734593
-1.6908461 6.0681887 -0.33013523
-1.6482148 5.9191861 1.4185413
-1.682744 6.0472851 -0.10956621
-1.144459 4.1351938 -1.1496743
-1.7521348 6.3351669 0.11473212
-1.2988883 4.699554 -1.1256551
-1.7477914 6.3280592 0.34405661
-1.4906702 5.3971252 -1.0883746
-1.6486011 5.9729924 0.54210871
-1.5594319 5.6537733 -0.92890793
-1.6410133 5.9536023 0.7582711
-1.5566839 5.6515055 -0.71976036
-1.6366806 5.9459844 0.97677696
-1.6407464 5.9648237 -0.54123718
-1.7375542 6.3167624 1.2734593
-1.6691229 6.0721288 -0.33003056
-1.626509 5.9211459 1.4176416
-1.1323467 4.1505427 -1.1527801
-1.7284325 6.3354564 0.11462741
-1.2855502 4.7153406 -1.1283545
-1.726218 6.3360481 0.34416127
-1.4739743 5.413918 -1.0906643
-1.6266992 5.9789944 0.54210871
-1.6191812 5.9554634 0.75778365
-1.6722707 6.154973 -0.78313243
-1.6185043 5.9611926 0.97834122
-1.6746963 6.1724157 -0.55953985
-1.7123338 6.3155093 1.2719328
-1.6068344 5.9345913 1.4194412
-1.5877036 5.863935 -0.10604082
-1.4980317 5.5365863 1.5368675
-1.1218683 4.169394 -1.1569211
-1.7036411 6.3359561 0.11452269
-1.2632031 4.7012005 -1.1238555
-1.7029819 6.3423328 0.34416127
-1.4550658 5.4190307 -1.0906643
-1.6078825 5.9923339 0.54280597
-1.6816257 6.2715235 -1.0284003
-1.5932305 5.9460187 0.75583369
-1.6538061 6.1764016 -0.7850824
-1.5991961 5.9766259 0.97990561
-1.647943 6.1631141 -0.55814534
-1.6892651 6.3176546 1.2711695
-1.6400654 6.1379452 -0.33296138
-1.5886211 5.9495783 1.4216906
-1.5466088 5.7962956 -0.10471445
-1.1036074 4.1622739 -1.1538154
-1.6830528 6.3476624 0.11462741
-1.2397964 4.6792092 -1.1175569
-1.6782781 6.3385844 0.34363794
-1.4412215 5.4471021 -1.0952437
-1.5859101 5.9981861 0.54280597
-1.6566081 6.2700062 -1.0271488
-1.5750021 5.9611397 0.75705242
-1.6266633 6.1610236 -0.7824012
-1.5778213 5.9802613 0.97959268
-1.6279449 6.1746087 -0.55866832
-1.6671003 6.3276 1.2719328
-1.619593 6.1516404 -0.33338007
-1.5856469 6.0269756 1.438787
-1.5263679 5.8016586 -0.10471445
-1.462307 5.5621104 1.5410087
-1.087844 4.1584353 -1.1517448
-1.6608865 6.3534985 0.11462741
-1.2273943 4.6985927 -1.1211561
-1.6577525 6.3460479 0.34374261
-1.4142233 5.4176593 -1.0883746
-1.5660118 6.0034118 0.54280597
-1.5954456 6.1206341 -1.0018064
-1.5541825 5.9666018 0.75705242
-1.6071491 6.1743484 -0.78337622
-1.5500211 5.9548736 0.97458684
-1.6049507 6.170332 -0.55779672
-1.6470941 6.3368945 1.2726961
-1.5976795 6.1511779 -0.33306605
-1.507621 5.8086238 -0.10474934
-1.0723556 4.1584659 -1.1507095
-1.6408054 6.3628449 0.11469722
-1.2098624 4.6950884 -1.1193565
-1.6360898 6.3537297 0.34384724
-1.3953047 5.4225626 -1.0883746
-1.5425642 5.9991946 0.54193443
-1.5741575 6.1220641 -1.0011806
-1.5358713 5.9774904 0.75778365
-1.5866637 6.1796446 -0.78337622
-1.5311873 5.9679022 0.9758383
-1.5834037 6.1758966 -0.55779672
-1.6280227 6.3499279 1.2742226
-1.5792537 6.1641812 -0.33348474
-1.6113701 6.2941079 1.4999737
-1.549289 6.0560141 -0.10911245
-1.5091022 5.9032187 1.6326306
-1.0561798 4.152638 -1.1481214
-1.6146456 6.3530283 0.11441798
-1.1982616 4.7181711 -1.1238555
-1.6050593 6.3245554 0.34196317
-1.376369 5.4273996 -1.0883746
-1.5231526 6.0062079 0.54210871
-1.5479238 6.1083732 -0.998052
-1.515485 5.9847393 0.75802737
-1.5660583 6.1889939 -0.78386366
-1.5108286 5.9751258 0.97615117
-1.5608613 6.1775222 -0.55744815
-1.6023335 6.3463349 1.2723144
-1.5566486 6.1699286 -0.33348474
-1.593202 6.3148112 1.5035729
-1.5100541 5.9896412 -0.10782097
-1.5488933 6.1482358 1.6988882
-1.0409535 4.1564808 -1.1481214
-1.5928046 6.3647237 0.11452269
-1.1771795 4.7074065 -1.1202562
-1.5944554 6.3807764 0.34468466
-1.3583684 5.4400272 -1.0899011
-1.5025749 6.0175495 0.54263163
-1.5250483 6.1120892 -0.99773914
-1.4896964 5.9748449 0.75607747
-1.5433654 6.1946921 -0.78386366
-1.489397 5.9825397 0.97646403
-1.5410936 6.1948037 -0.55849403
-1.5771691 6.3445439 1.270788
-1.5301738 6.1600852 -0.33264738
-1.5695778 6.3187156 1.5031229
-1.486644 5.9893136 -0.10771625
-1.5430923 6.2213726 1.7175232
-1.0243238 4.1546412 -1.1465684
-1.5708994 6.3763442 0.11462741
-1.1589875 4.7079048 -1.1193565
-1.5669221 6.3649693 0.34353325
-1.3365581 5.4332967 -1.0876113
-1.4833615 6.0346255 0.54367751
-1.5012238 6.1118822 -0.99680054
-1.468735 5.9841199 0.75656492
-1.5188916 6.1884747 -0.7824012
-1.4694445 5.9915395 0.97708976
-1.5213585 6.2078853 -0.55919123
-1.5568821 6.3576379 1.2723144
-1.5110337 6.1750894 -0.33317071
-1.5456574 6.3165851 1.5013233
-1.4671545 6.0002937 -0.10782097
-1.4525896 5.9452233 1.6398776
-1.0105398 4.1580157 -1.1465684
-1.5502193 6.3834615 0.11466231
-1.1456678 4.7211909 -1.1216059
-1.5443946 6.3643074 0.34321922
-1.3166814 5.430068 -1.0860848
-1.4624046 6.0356383 0.54332888
-1.5055851 6.2185817 -1.0133826
-1.4488813 5.9889579 0.75656492
-1.4983598 6.1934776 -0.7824012
-1.4463199 5.9829392 0.97489971
-1.5002975 6.2109594 -0.55901694
-1.534868 6.3589497 1.2715513
-1.490081 6.1781249 -0.33306605
-1.5247035 6.3216758 1.5013233
-1.4435018 5.989573 -0.10754173
-1.0003464 4.1763725 -1.1507095
-1.5299715 6.392457 0.11473212
-1.1295511 4.7230692 -1.1211561
-1.5249534 6.3813152 0.34384724
-1.2941053 5.415309 -1.0822687
-1.4396034 6.0288272 0.542283
-1.4817443 6.2100906 -1.0111924
-1.4317768 6.0053153 0.75802737
-1.4776499 6.2025328 -0.78288871
-1.4254282 5.9879513 0.97489971
-1.4773842 6.2062092 -0.55814534
-1.5164996 6.3754635 1.2738409
-1.4709692 6.1888618 -0.33338007
-1.5039798 6.3326478 1.502673
-1.4211987 5.9887385 -0.10743701
-1.3866783 5.8478298 1.6103721
-0.98221552 4.1647973 -1.1465684
-1.5058181 6.3899722 0.11459251
-1.1157361 4.7383652 -1.1238555
-1.5026705 6.3865995 0.34384724
-1.2814906 5.446548 -1.0876113
-1.4194663 6.037694 0.54263163
-1.4456004 6.1536884 -1.0011806
-1.410804 6.0102773 0.75802737
-1.4578075 6.2153826 -0.78386366
-1.4072204 6.0044303 0.97677696
-1.4557098 6.2113285 -0.55814534
-1.4915482 6.3692498 1.2715513
-1.4475411 6.1861792 -0.33296138
-1.4836385 6.345449 1.5044726
-1.4080176 6.0267668 -0.10803039
-0.97203934 4.1870189 -1.1517448
-1.4848577 6.4010339 0.11469722
-1.0974326 4.7346363 -1.1220559
-1.4781131 6.3820777 0.34332392
-1.2633553 5.454814 -1.0883746
-1.4001774 6.0503764 0.54332888
-1.4165468 6.1259785 -0.99586189
-1.3857948 5.9977574 0.75583369
-1.4387804 6.2320395 -0.78532612
-1.3866976 6.01123 0.97708976
-1.4329358 6.2166219 -0.55814534
-1.4693077 6.3744173 1.2715513
-1.4254886 6.1892481 -0.33285671
-1.4619151 6.352489 1.5049226
-1.3874213 6.0335937 -0.1080653
-1.3908123 6.0531778 1.6642065
-0.95582747 4.1867857 -1.1507095
-1.4620612 6.4042277 0.11466231
-1.0778638 4.7251387 -1.1189066
-1.4571562 6.3930402 0.34363794
-1.2424831 5.4555788 -1.0876113
-1.3779935 6.0554676 0.54332888
-1.3962729 6.1407614 -0.99742627
-1.3674896 6.014173 0.75729614
-1.4135009 6.2215371 -0.78337622
-1.3652701 6.0141077 0.97677696
-1.4121069 6.2254729 -0.55849403
-1.4032369 6.1963792 -0.33296138
-1.4351829 6.3425984 1.5013233
-1.338105 5.9135752 -0.10583139
-1.4118522 6.2445397 1.7154527
-0.94035923 4.1863279 -1.1496743
-1.4412045 6.4212508 0.11487174
-1.0605369 4.7290578 -1.1189066
-1.435707 6.4019852 0.34384724
-1.220855 5.4483886 -1.0853217
-1.3577167 6.0641298 0.54367751
-1.3782804 6.1610188 -0.99992919
-1.3463047 6.0230188 0.75778365
-1.3906866 6.2266765 -0.78337622
-1.3416836 6.0072699 0.97489971
-1.3912364 6.2342525 -0.5588426
-1.3837688 6.2109866 -0.33348474
-1.4134592 6.3494716 1.5017732
-1.320932 5.9338255 -0.10611063
-1.4043056 6.3135467 1.7330524
-0.92824018 4.2009029 -1.1527801
-1.4186068 6.4201374 0.11476702
-1.0444297 4.7306457 -1.1184566
-1.4146432 6.4128089 0.34416127
-1.1840792 5.3720927 -1.0692936
-1.3335423 6.0552115 0.54245734
-1.3620919 6.1848464 -1.0030578
-1.3271786 6.0313268 0.7582711
-1.3708813 6.2351317 -0.78386366
-1.3219789 6.017704 0.9758383
-1.367759 6.231286 -0.55814534
-1.3627353 6.2135911 -0.33338007
-1.3949 6.3655453 1.5044726
-1.3925958 6.3603382 -0.11365007
-1.3719355 6.2712302 1.7201115
-0.91184396 4.1926312 -1.1496743
-1.3953398 6.4211421 0.11469722
-1.0299765 4.7437844 -1.1207062
-1.3939447 6.4255147 0.34457996
-1.0962834 5.0576897 -1.0059451
-1.3142976 6.0634952 0.54280597
-1.3643258 6.2996097 -1.0208914
-1.3061156 6.035923 0.7582711
-1.3499486 6.2437596 -0.78435117
-1.3009636 6.0222826 0.9758383
-1.3459978 6.2360229 -0.55814534
-1.3407948 6.2224483 -0.3335894
-1.3726698 6.3703761 1.5044726
-1.3779598 6.4003501 -0.11427836
-1.2760965 5.9322462 1.6259012
-0.89646995 4.1959453 -1.1496743
-1.3722147 6.4281678 0.11473212
-1.0109577 4.7399044 -1.1189066
-1.3703831 6.4305811 0.34457996
-1.068745 5.0194287 -0.99754947
-1.2928962 6.0721684 0.5431546
-1.3416398 6.3064995 -1.0212044
-1.2815093 6.0290198 0.7568087
-1.3287059 6.2564316 -0.78532612
-1.2801136 6.0328069 0.97677696
-1.3251972 6.2506604 -0.55901694
-1.3002683 6.1383562 1.2196511
-1.315086 6.2136426 -0.33285671
-1.349717 6.3772702 1.5049226
-1.3296677 6.287972 -0.11218407
-0.88425761 4.2143288 -1.1538154
-1.3490537 6.435112 0.11476702
-0.99198127 4.7359481 -1.1171069
-1.3462913 6.427506 0.34416127
-1.0520204 5.0269723 -0.99831271
-1.2714458 6.0807672 0.54350317
-1.3197296 6.3171749 -1.0221429
-1.2602128 6.0375628 0.75729614
-1.3052348 6.2532592 -0.78435117
-1.2598522 6.0411062 0.97740263
-1.2932397 6.2120514 1.2333894
-1.2925733 6.2142849 -0.33264738
-1.3250651 6.3704958 1.5022231
-1.2686541 6.1046185 -0.1088332
-1.1758801 5.6631746 1.5498085
-0.86637402 4.1983175 -1.148639
-1.3281118 6.4415083 0.11480194
-0.97626954 4.7392116 -1.1171069
-1.3241619 6.4280229 0.34395194
-1.0488019 5.0958133 -1.0112877
-1.2520752 6.0888534 0.54385179
-1.2979769 6.317647 -1.0215172
-1.2417823 6.0494862 0.7582711
-1.2844923 6.2575531 -0.78435117
-1.2390169 6.0413814 0.97677696
-1.2529459 6.1201372 1.2143085
-1.275159 6.2341914 -0.33348474
-1.3039308 6.3748555 1.5022231
-1.2660189 6.1949973 -0.11036902
-1.2954516 6.3446651 1.735123
-0.84937268 4.1860213 -1.1444979
-1.2980012 6.402761 0.11403403
-0.96287054 4.7538824 -1.1198063
-1.3032986 6.4404368 0.34437063
-1.0677207 5.2762947 -1.0463966
-1.2295092 6.0812545 0.54280597
-1.2785854 6.3296609 -1.0227686
-1.2224984 6.0574636 0.7587586
-1.2642094 6.269783 -0.78532612
-1.2171448 6.0417953 0.97615117
-1.2552675 6.2423019 -0.3336941
-1.2828264 6.3850989 1.5035729
-1.2239207 6.0974288 -0.10855397
-0.83930647 4.215632 -1.1517448
-1.2432363 6.244473 0.11113693
-0.94246739 4.738102 -1.1153073
-1.2815925 6.448864 0.34457996
-1.0766695 5.4226718 -1.0746363
-1.2103148 6.1013546 0.54420048
-1.2519168 6.3168674 -1.0199529
-1.2021167 6.0655885 0.75924611
-1.2423174 6.274157 -0.78532612
-1.1975794 6.0537591 0.97740263
-1.2331543 6.2507792 -0.33390343
-1.2601643 6.3935823 1.5044726
-1.1883199 6.0290723 -0.10726249
-0.82236129 4.20716 -1.148639
-1.2191924 6.2430997 0.11103221
-0.920618 4.7185717 -1.1099085
-1.2598372 6.4572186 0.34478933
-1.0614889 5.4456668 -1.0784526
-1.186726 6.0938077 0.5431546
-1.2287316 6.3153806 -1.0190142
-1.1776059 6.0582619 0.75778365
-1.2200714 6.2825661 -0.78581363
-1.1779482 6.065659 0.97865415
-1.1704803 6.0384812 1.1956092
-1.2113259 6.2550454 -0.33390343
-1.2393239 6.4055943 1.5062722
-1.2032746 6.225111 1.6988882
-0.80621755 4.2024159 -1.1465684
-1.1999911 6.2549639 0.11117183
-0.90863264 4.7407389 -1.1144075
-1.2350341 6.4498081 0.34416127
-1.0476416 5.4763341 -1.0837952
-1.169934 6.1213975 0.54524636
-1.2085222 6.3233008 -1.01964
-1.1556491 6.0523834 0.75656492
-1.1970004 6.2748771 -0.78435117
-1.1597248 6.0852575 0.98115706
-1.1651388 6.1194735 1.210874
-1.1890881 6.2511792 -0.33348474
-1.2177097 6.4077549 1.5058223
-1.1517978 6.06669 -0.10778606
-1.1926991 6.2881112 1.7149351
-0.79370695 4.2126598 -1.148639
-1.1781483 6.2591147 0.11117183
-0.88991672 4.7323904 -1.1117082
-1.2125139 6.4540792 0.34416127
-1.0236742 5.4489064 -1.0776893
-1.1488943 6.1213264 0.54489768
-1.1922655 6.3585458 -1.0246458
-1.1374406 6.07199 0.75851488
-1.1758183 6.2829204 -0.78483868
-1.1341182 6.0659685 0.97740263
-1.1423302 6.1157837 1.2093475
-1.1665258 6.2513657 -0.33327541
-1.1946191 6.4081354 1.5049226
-1.1492881 6.1709337 -0.10956621
-1.1827585 6.3568106 1.7325348
-0.77267706 4.181211 -1.1393216
-1.156291 6.2631893 0.11117183
-0.87693 4.7546315 -1.1162071
-1.1921474 6.470058 0.34478933
-1.0053579 5.4563088 -1.0784526
-1.1264361 6.1194215 0.54437476
-1.1754264 6.3918104 -1.029339
-1.1180303 6.0856857 0.75973356
-1.1545947 6.2908912 -0.78532612
-1.1122259 6.0660038 0.97677696
-1.1259257 6.1467695 1.2146901
-1.1482908 6.2750459 -0.33432212
-1.1722445 6.4122658 1.5049226
-1.1324093 6.2004814 -0.11001997
-1.1640276 6.3799057 1.7377111
-0.75773358 4.1819811 -1.1388038
-1.1322855 6.2553806 0.1109624
-0.85963303 4.7538285 -1.1153073
-1.1567746 6.4034238 0.34102112
-0.98840088 5.4713764 -1.0807421
-1.1079006 6.1390018 0.54576921
-1.1527554 6.3939309 -1.029026
-1.0967789 6.0895514 0.75973356
-1.1333327 6.2987909 -0.78581363
-1.0931429 6.0815144 0.97865415
-1.0961332 6.1042862 1.2055314
-1.1256758 6.2750845 -0.33411276
-1.1515746 6.4259095 1.5071721
-1.1171002 6.2398272 -0.11064825
-1.1312083 6.3249779 1.7216644
-0.74887443 4.2169361 -1.1476036
-1.1100924 6.2573261 0.1109275
-0.84269482 4.7548819 -1.1148574
-1.1305836 6.3857894 0.33986974
-0.96724117 5.4631944 -1.0784526
-1.0861162 6.1408701 0.54559493
-1.130087 6.3959703 -1.0287131
-1.0737917 6.0835686 0.75851488
-1.1130607 6.3124828 -0.78703225
-1.0736225 6.0950198 0.98021847
-1.0829858 6.15448 1.2146901
-1.1016884 6.2671728 -0.33348474
-1.1304835 6.4375677 1.5089717
-1.085639 6.1885395 -0.10967092
-1.1124562 6.3479171 1.7268407
-0.72944278 4.1968131 -1.1413921
-1.0888624 6.271204 0.11110201
-0.82359523 4.7483377 -1.1126078
-1.1052157 6.3719859 0.33892769
-0.94050872 5.4280138 -1.0708202
-1.0687 6.1742573 0.54820961
-1.1167324 6.4584641 -1.0380992
-1.0514885 6.0874634 0.75851488
-1.0533464 6.1045709 0.98115706
-1.0557585 6.1313214 1.2093475
-1.0800663 6.2790418 -0.33390343
-1.1052322 6.4320645 1.5067222
-1.092907 6.3669934 1.7309818
-0.71802926 4.2183785 -1.1465684
-1.099936 6.4620576 0.11441798
-0.80849665 4.7548857 -1.1135077
-1.0839713 6.381712 0.33924171
-0.87491816 5.1564102 -1.0166303
-1.0494704 6.1917014 0.54942977
-0.8813957 5.2000885 -0.83536011
-1.0326227 6.0987453 0.75948983
-0.87000239 5.1437664 -0.64054531
-1.0303838 6.0984716 0.97959268
-1.0399959 6.1618905 1.2146901
-1.0605649 6.2904673 -0.33432212
-1.0842186 6.4376163 1.5071721
-1.0185242 6.0539846 -0.10715777
-1.0697131 6.3650541 1.7294289
-0.70213038 4.2093029 -1.1434625
-1.084276 6.5072808 0.11515098
-0.79381484 4.7692122 -1.1162071
-1.061359 6.3834872 0.33913705
-0.85008699 5.112803 -1.0074716
-1.0276276 6.1872849 0.54873258
-0.85806674 5.1719537 -0.83035421
-1.0122999 6.1081877 0.76022106
-0.85366428 5.1565642 -0.64176404
-1.008769 6.1000824 0.97927988
-1.0152793 6.1461134 1.210874
-1.0392522 6.2980719 -0.33453146
-1.0617418 6.4413619 1.5071721
-0.99608445 6.0496111 -0.10701816
-1.0233483 6.2219687 1.6895708
-0.68681133 4.2079144 -1.1424273
-1.0602689 6.5031304 0.11501136
-0.77590811 4.7642608 -1.1144075
-1.0419577 6.4048948 0.34007907
-0.81332153 4.9994726 -0.9845745
-1.0127361 6.2321324 0.55239308
-0.84760273 5.2217135 -0.83786315
-0.9912883 6.1136436 0.76046479
-0.84645128 5.2261372 -0.65005112
-0.98841441 6.109417 0.98021847
-0.99256462 6.1418681 1.2093475
-1.0172628 6.301661 -0.33453146
-1.0392491 6.4450288 1.5071721
-0.96382999 5.9839525 -0.10579649
-0.93902308 5.8364086 1.5839727
-0.67577213 4.2331791 -1.148639
-1.0378755 6.5087671 0.11504627
-0.75835675 4.7611666 -1.1130579
-1.0370502 6.510879 0.34552202
-0.8489213 5.3357658 -1.0502127
-0.99691558 6.2730165 0.55570501
-1.0034249 6.3210731 -1.0136955
-0.96901023 6.1111851 0.75973356
-0.85490829 5.397676 -0.67101264
-0.96815068 6.1126604 0.98021847
-0.97541088 6.1724434 1.2146901
-0.99525809 6.3051739 -0.33453146
-1.0134052 6.427443 1.5022231
-0.95363414 6.0483499 -0.10687853
-0.65741587 4.2126074 -1.1424273
-1.0165925 6.5141492 0.11508117
-0.73926097 4.7424746 -1.1081089
-1.013086 6.5065656 0.34510332
-0.84959859 5.4628539 -1.0746363
-0.9774605 6.2922077 0.55709946
-0.96001738 6.1799207 -0.99054313
-0.94934952 6.1182876 0.76022106
-0.97624981 6.2989278 -0.78264499
-0.9480176 6.1238108 0.98146993
-0.96993887 6.2726536 1.233771
-0.97373247 6.304492 -0.33432212
-0.99535811 6.4519529 1.5071721
-0.93495619 6.0674524 -0.10715777
-0.98802292 6.4192948 1.7402993
-0.64577597 4.2300425 -1.1465684
-0.9947564 6.5235877 0.11518589
-0.72622198 4.7681446 -1.1135077
-0.99096674 6.5140123 0.34531268
-0.83147961 5.465641 -1.0746363
-0.96227759 6.3328404 0.56041139
-0.93280607 6.1461272 -0.98459864
-0.92858034 6.1254902 0.76070851
-0.95366651 6.2983708 -0.78215748
-0.92574799 6.1212234 0.98053133
-0.96887696 6.4064002 -0.56686091
-0.95272738 6.3070612 1.2398769
-0.95291591 6.3157516 -0.33474082
-0.97369993 6.4611692 1.5085218
-0.91228127 6.060792 -0.10698325
-0.9690603 6.4456282 1.746511
-0.62986779 4.2246275 -1.1444979
-0.96844262 6.5032864 0.11476702
-0.70842558 4.7629409 -1.1117082
-0.96793032 6.5154552 0.34520799
-0.81355089 5.4762769 -1.0761628
-0.93870217 6.3263068 0.55953985
-0.9127928 6.1591167 -0.98616302
-0.90893805 6.1404757 0.76217091
-0.93573821 6.329154 -0.78556985
-0.90350795 6.1185551 0.97959268
-0.9354468 6.3348451 -0.56023711
-0.92841548 6.2948103 1.236824
-0.93231767 6.3289189 -0.33526415
-0.95142233 6.4664569 1.5089717
-0.89024866 6.0580039 -0.10687853
-0.61455965 4.2229772 -1.1434625
-0.92445254 6.360188 0.11218407
-0.69235867 4.7692409 -1.1126078
-0.94059396 6.4871688 0.34353325
-0.79347509 5.4792218 -1.0761628
-0.91118938 6.2920804 0.55622798
-0.88563669 6.1231637 -0.97990561
-0.88806432 6.1475415 0.76265842
-0.91789007 6.3618536 -0.78922594
-0.88355762 6.1314473 0.98115706
-0.91137207 6.332315 -0.5597142
-0.90310138 6.2826247 1.233771
-0.90883231 6.3303165 -0.33515951
-0.92940271 6.4735961 1.5098715
-0.86625695 6.0412807 -0.10652949
-0.59853613 4.2213755 -1.1424273
-0.90309614 6.3773937 0.1124284
-0.67405397 4.7659583 -1.1112581
-0.91485709 6.4767294 0.34280053
-0.77174056 5.4704294 -1.073873
-0.88979 6.3072152 0.55727381
-0.86373782 6.130281 -0.98053133
-0.86386812 6.1389599 0.76119596
-0.86327392 6.1502943 0.98365998
-0.89092422 6.3553433 -0.56145728
-0.88006961 6.2858925 1.233771
-0.9067443 6.4846797 1.5116711
-0.8244732 5.903801 -0.10405125
-0.79630643 5.7093816 1.5446322
-0.58464611 4.235023 -1.1455331
-0.88490641 6.4182982 0.1130916
-0.65312445 4.7433 -1.1054094
-0.88733792 6.4442692 0.34091645
-0.75157177 5.4653101 -1.0723467
-0.87236118 6.3518848 0.56093436
-0.83830917 6.1118779 -0.97708976
-0.84271032 6.1519189 0.76241469
-0.73912269 5.4027252 -0.66955024
-0.8418014 6.1532702 0.98365998
-0.85812378 6.2889261 1.233771
-0.68174708 5.0028329 -0.26461062
-0.88218373 6.4821658 1.5103214
-0.8168022 6.0017514 -0.10572667
-0.56882834 4.2293797 -1.1434625
-0.86654788 6.4429979 0.11347555
-0.63791132 4.7493024 -1.1063093
-0.86218381 6.4275317 0.33986974
-0.73248827 5.4679008 -1.0723467
-0.85123867 6.3627906 0.56163162
-0.81830001 6.1165824 -0.97740263
-0.82256633 6.1566477 0.76265842
-0.81822842 6.1405067 0.98115706
-0.83726251 6.2917371 1.233771
-0.66462576 5.0011067 -0.26440126
-0.86094099 6.4869881 1.5107714
-0.81135023 6.1215253 -0.10778606
-0.81625283 6.1667767 1.6667948
-0.55128479 4.2044263 -1.1362157
-0.84353143 6.4420185 0.11340573
-0.62486768 4.7785521 -1.1126078
-0.83905309 6.4164929 0.33913705
-0.71257353 5.4566722 -1.0696753
-0.8296172 6.3616276 0.56128299
-0.79592502 6.1115656 -0.97615117
-0.80363208 6.1791658 0.76509583
-0.82760644 6.3722253 -0.78898221
-0.79887724 6.151022 0.98240852
-0.81176293 6.267364 1.2284284
-0.83904213 6.4957509 1.512121
-0.78771716 6.0984001 -0.1073323
-0.73672986 5.7115307 1.5430793
-0.54002869 4.2331533 -1.1434625
-0.8173607 6.4070911 0.11274255
-0.60507643 4.7496681 -1.1054094
-0.81488419 6.4055133 0.33840433
-0.69525498 5.4727597 -1.0723467
-0.80665499 6.3585548 0.56076008
-0.77316612 6.0945749 -0.97302246
-0.7821371 6.1739197 0.76412088
-0.80796701 6.3867512 -0.79044467
-0.77715504 6.1518135 0.98209572
-0.78360486 6.211587 1.2169799
-0.81822473 6.5042987 1.5134706
-0.76517713 6.0911922 -0.10715777
-0.52503449 4.227253 -1.1413921
-0.7927739 6.392045 0.1124284
-0.59041047 4.7672234 -1.1090087
-0.79521763 6.4301229 0.33955571
-0.67661935 5.471138 -1.0715834
-0.78605443 6.365149 0.56110865
-0.75043523 6.0854735 -0.97114527
-0.75864172 6.16085 0.76217091
-0.75784141 6.1721349 0.98491156
-0.76574159 6.2454629 1.2230858
-0.78770995 6.4432821 1.4986238
-0.74342394 6.0898561 -0.10708796
-0.75224191 6.1710186 1.6657594
-0.51138484 4.2444925 -1.1455331
-0.77236843 6.410656 0.11270764
-0.57120681 4.747973 -1.1040598
-0.76919252 6.4031143 0.33798563
-0.65609306 5.4696832 -1.0708202
-0.76627535 6.3976617 0.56372333
-0.72718889 6.0803375 -0.96989381
-0.739016 6.1792293 0.76412088
-0.7610054 6.3725247 -0.7880072
-0.73512679 6.1649342 0.98334718
-0.74747962 6.2872176 1.2307181
-0.77143073 6.5080523 1.5130208
-0.72522318 6.1182299 -0.10754173
-0.68142176 5.7573018 1.553432
-0.49432272 4.2270641 -1.1403568
-0.75211543 6.4412513 0.11319631
-0.55515122 4.7616482 -1.1067592
-0.74845409 6.4196472 0.33871832
-0.60044843 5.1579762 -1.0093796
-0.74623734 6.4200878 0.56546646
-0.7057308 6.0808773 -0.96958095
-0.71293682 6.152318 0.76046479
-0.74015504 6.3969622 -0.7906884
-0.71337402 6.1655011 0.98303431
-0.73923707 6.3988357 -0.56354898
-0.72552991 6.2897882 1.2307181
-0.71435624 6.2024298 -0.32720444
-0.74937487 6.5165133 1.5143706
-0.69997686 6.0869517 -0.10694835
-0.47738647 4.209568 -1.1351804
-0.73255211 6.4596052 0.11347555
-0.54045522 4.7731447 -1.1090087
-0.73142999 6.4698515 0.34123048
-0.58067703 5.1444335 -1.0063267
-0.72382075 6.4226537 0.56546646
-0.68312973 6.0615916 -0.96613932
-0.69563979 6.1822648 0.76387709
-0.66397429 5.9101567 -0.73024112
-0.69228679 6.1718798 0.98365998
-0.66035599 5.8964744 -0.51909959
-0.70466948 6.2921596 1.2307181
-0.6562748 5.8693185 -0.30951488
-0.72797865 6.5208988 1.5148203
-0.6809445 6.1092315 -0.1072974
-0.46469316 4.2226496 -1.1382862
-0.71153265 6.4760365 0.11371988
-0.524854 4.7846875 -1.1112581
-0.71297103 6.510087 0.34321922
-0.56147802 5.1268148 -1.0025105
-0.70663756 6.4626493 0.5687784
-0.6742689 6.1866298 0.76412088
-0.64226472 5.9025717 -0.7290225
-0.67095339 6.1762223 0.98397291
-0.63869363 5.8888392 -0.51822799
-0.681853 6.2867746 1.2291917
-0.63814658 5.8934159 -0.31066626
-0.70667958 6.5369625 1.5179697
-0.65982807 6.1135597 -0.1073323
-0.45003137 4.2320085 -1.1403568
-0.6931501 6.5182505 0.11441798
-0.50567913 4.7632365 -1.1058594
-0.69298023 6.5383558 0.34457996
-0.57594395 5.4431677 -1.063951
-0.6869179 6.5028419 0.57209027
-0.62544471 5.9307747 -0.94455141
-0.65142161 6.1771007 0.76265842
-0.62249243 5.9126735 -0.7299974
-0.65124691 6.196208 0.98678869
-0.61959058 5.9049039 -0.51944822
-0.6579895 6.2814207 1.2276652
-0.6155045 5.8857832 -0.3101429
-0.68291634 6.5414472 1.5184196
-0.63765162 6.1078701 -0.10719268
-0.58855695 5.6471243 1.5213385
-0.43644044 4.2450838 -1.1434625
-0.6753813 6.5804243 0.11546512
-0.48643103 4.7476106 -1.1018102
-0.67137253 6.5526567 0.34520799
-0.56253225 5.4998312 -1.0746363
-0.66846907 6.546824 0.57575083
-0.60533798 5.938818 -0.94549
-0.62917727 6.1833959 0.76314586
-0.62709516 6.1736317 -0.76192719
-0.6298151 6.2004089 0.98710161
-0.63836879 6.2955465 -0.55361325
-0.63645303 6.2875857 1.2284284
-0.64415163 6.3747454 -0.33578753
-0.65910172 6.5340967 1.5161701
-0.61452228 6.0921521 -0.10687853
-0.42009372 4.2312026 -1.1393216
-0.65612268 6.6084971 0.11591888
-0.47107005 4.7530761 -1.1027101
-0.63885874 6.4575696 0.34007907
-0.54063064 5.4744081 -1.0692936
-0.64756519 6.5689454 0.57749397
-0.60905606 6.1894002 0.76363337
-0.61593515 6.2705054 -0.77362669
-0.60662693 6.186842 0.98459864
-0.62939084 6.4305921 -0.56529218
-0.61674476 6.3013854 1.2307181
-0.62456363 6.3927484 -0.33662489
-0.63724244 6.5343065 1.5157202
-0.57852668 5.9429984 -0.10422577
-0.54874456 5.6472502 1.5203031
-0.40716794 4.2441101 -1.1424273
-0.63343018 6.6147285 0.11598869
-0.45540172 4.7643909 -1.1049596
-0.61706233 6.4556766 0.33986974
-0.52172917 5.4683537 -1.0677671
-0.62634307 6.5770073 0.57801688
-0.58060169 6.1079874 -0.971771
-0.58838612 6.2013693 0.76485211
-0.59441584 6.2765694 -0.77411413
-0.58759558 6.2045522 0.98710161
-0.60731405 6.4247093 -0.56459486
-0.59474641 6.3034997 1.2307181
-0.60374141 6.4107976 -0.33746228
-0.61515731 6.5442519 1.5175198
-0.55357695 5.8891387 -0.10324844
-0.52802795 5.6278815 1.5146091
-0.39199412 4.2416587 -1.1413921
-0.61094075 6.6108189 0.11588398
-0.44228572 4.7949824 -1.1117082
-0.59470856 6.4597802 0.3399744
-0.50515139 5.4975119 -1.0731099
-0.60356456 6.5811372 0.57819116
-0.56395298 6.1492219 -0.97802842
-0.56854343 6.2111936 0.76582706
-0.57522547 6.296298 -0.77630776
-0.56593239 6.2065659 0.98710161
-0.58560759 6.4347272 -0.56529218
-0.57526475 6.3210788 1.233771
-0.58248037 6.4127641 -0.33746228
-0.59415436 6.554019 1.5193194
-0.53842366 5.9507813 -0.10429558
-0.50803345 5.6258421 1.5135738
-0.37684435 4.2391524 -1.1403568
-0.58723521 6.6189895 0.11598869
-0.42126951 4.7577481 -1.1027101
-0.56997478 6.4499793 0.33934638
-0.48354012 5.4718628 -1.0677671
-0.58093673 6.5871735 0.57853985
-0.54799104 6.2260227 -0.9899174
-0.54612327 6.2171907 0.76631445
-0.55335641 6.3122063 -0.77801394
-0.54335392 6.210566 0.98741448
-0.56418276 6.4486408 -0.566338
-0.55004519 6.2996755 1.2291917
-0.55897087 6.4148564 -0.33746228
-0.57080543 6.5639181 1.521119
-0.51971996 5.9885745 -0.10492387
-0.48790893 5.63344 1.5151267
-0.36105743 4.2288923 -1.1372509
-0.56429827 6.6229916 0.1160236
-0.40433007 4.7553062 -1.1018102
-0.54627293 6.4379983 0.33861366
-0.46476734 5.4774294 -1.0685304
-0.55894965 6.6010728 0.57958567
-0.53640205 6.3479676 -1.0090024
-0.52474982 6.2230153 0.76680195
-0.53065485 6.3061867 -0.77703899
-0.5224995 6.2222672 0.98897886
-0.54133731 6.4466 -0.56598938
-0.53001738 6.3250332 1.233771
-0.53657681 6.4167686 -0.33746228
-0.54756689 6.5619864 1.5202192
-0.50611538 6.0780358 -0.10645968
-0.34755352 4.2455311 -1.1413921
-0.54182887 6.6328926 0.11616322
-0.38867715 4.7683425 -1.1045097
-0.52476662 6.4518108 0.33924171
-0.44596156 5.4829321 -1.0692936
-0.53671151 6.6129131 0.58045721
-0.51455748 6.3537397 -1.0096282
-0.50350225 6.2307448 0.76753318
-0.50911885 6.3139367 -0.77777022
-0.500458 6.2201152 0.98835307
-0.51866966 6.4464645 -0.56581503
-0.50604874 6.3033619 1.2291917
-0.51513308 6.4305472 -0.33809033
-0.52512205 6.5696864 1.5215689
-0.49443322 6.199367 -0.10855397
-0.45025671 5.6578927 1.5208209
-0.33152539 4.2313104 -1.1372509
-0.51913822 6.6407247 0.11626793
-0.37294045 4.7813272 -1.1072091
-0.50177878 6.4476295 0.33892769
-0.42682096 5.4844551 -1.0692936
-0.5133146 6.6107731 0.58010858
-0.49359766 6.3712525 -1.0121311
-0.48251608 6.2423601 0.76875186
-0.48799017 6.3275514 -0.77923268
-0.47919866 6.2277322 0.98929167
-0.49723548 6.462141 -0.56703526
-0.48584741 6.3285794 1.233771
-0.49298647 6.4362888 -0.33829966
-0.50292701 6.5811939 1.5238184
-0.47279167 6.2010555 -0.10855397
-0.31704059 4.2362947 -1.1382862
-0.49342489 6.6085958 0.11567455
-0.35552543 4.7728829 -1.1049596
-0.48015571 6.4612927 0.33955571
-0.40738162 5.4819965 -1.0685304
-0.49053156 6.6164989 0.58045721
-0.47193894 6.380816 -1.0133826
-0.46086764 6.2459869 0.76899564
-0.46706405 6.3450541 -0.78118259
-0.45702419 6.2234569 0.98835307
-0.47526041 6.471786 -0.56773251
-0.46375191 6.3302369 1.233771
-0.47109723 6.4459381 -0.33871832
-0.48023924 6.5867968 1.5247183
-0.4491106 6.174746 -0.1080653
-0.4066892 5.6050215 1.5058093
-0.30225414 4.2373757 -1.1382862
-0.46552625 6.54246 0.11448779
-0.33872354 4.7721515 -1.1045097
-0.45844948 6.4748821 0.34018376
-0.38824719 5.4833846 -1.0685304
-0.4679924 6.6261206 0.58115447
-0.44882819 6.3706017 -1.0115054
-0.43767491 6.2277546 0.76655823
-0.44519186 6.350606 -0.78167003
-0.43667382 6.24472 0.99148178
-0.45280406 6.4753928 -0.5679068
-0.4416568 6.3318167 1.233771
-0.44831792 6.4435587 -0.33850899
-0.45778203 6.596209 1.5265179
-0.42644754 6.1603169 -0.10778606
-0.28745997 4.2384048 -1.1382862
-0.43188703 6.3844342 0.1116954
-0.32101506 4.7577496 -1.1009104
-0.43490466 6.4624939 0.33945104
-0.36883914 5.4807892 -1.0677671
-0.4459258 6.6436176 0.58254898
-0.42685318 6.3760719 -1.0121311
-0.41632843 6.2351871 0.76728946
-0.4296149 6.4511566 -0.79385698
-0.41513619 6.2501488 0.99210751
-0.43099156 6.488862 -0.56895268
-0.41955024 6.3333201 1.233771
-0.42582124 6.4450846 -0.33850899
-0.43488368 6.5997114 1.5269678
-0.40337205 6.1378231 -0.10736721
-0.36464283 5.5633869 1.4939036
-0.27365425 4.2548056 -1.1424273
-0.41190702 6.421824 0.11232369
-0.3044042 4.7588415 -1.1009104
-0.41234195 6.4639726 0.33945104
-0.34995383 5.4859614 -1.0685304
-0.4224841 6.6411562 0.58220035
-0.4039669 6.3676662 -1.0105668
-0.39556208 6.2524514 0.76923937
-0.4084729 6.4744091 -0.79653811
-0.39257067 6.2397304 0.99023032
-0.4085871 6.4943042 -0.56930131
-0.3989138 6.3582592 1.2383504
-0.403575 6.4505181 -0.33871832
-0.41172063 6.5992441 1.5265179
-0.38020456 6.1112518 -0.10687853
-0.25856692 4.2518783 -1.1413921
-0.3919071 6.4631429 0.11302178
-0.2889657 4.7793264 -1.1054094
-0.39162582 6.4772663 0.34007907
-0.32985815 5.4714723 -1.0654775
-0.39941734 6.6445789 0.58237463
-0.38149905 6.3650937 -1.009941
-0.37432796 6.2637019 0.7704581
-0.38634109 6.4837217 -0.79751301
-0.37176055 6.2390261 0.9899174
-0.38496822 6.4797797 -0.5679068
-0.37532514 6.3360944 1.233771
-0.38176081 6.46385 -0.33934638
-0.38890985 6.6045322 1.5274177
-0.35770172 6.0745506 -0.10621535
-0.3264285 5.5599546 1.4923507
-0.24217495 4.2257538 -1.1341451
-0.3644067 6.3585973 0.11117183
-0.27267388 4.7724762 -1.1036098
-0.37367475 6.560349 0.34437063
-0.3118687 5.4921913 -1.0692936
-0.37588456 6.6399655 0.58185172
-0.36251515 6.4037962 -1.0158856
-0.3534441 6.2629266 0.77021432
-0.36528242 6.4928956 -0.79848802
-0.35064206 6.2521195 0.99179459
-0.36268532 6.4870515 -0.56842977
-0.35431311 6.3373046 1.233771
-0.36032203 6.4650807 -0.33934638
-0.36819673 6.6271887 1.5323665
-0.33959585 6.1316676 -0.10719268
-0.30680418 5.5572019 1.4913154
-0.22920272 4.2458239 -1.1393216
-0.34178039 6.3518429 0.11103221
-0.25528136 4.759778 -1.1004605
-0.35759431 6.6892557 0.35106963
-0.29344571 5.4892745 -1.0685304
-0.35460383 6.6551027 0.58307195
-0.339634 6.3951592 -1.0143212
-0.33189338 6.2700691 0.77094555
-0.34282625 6.4980955 -0.79897547
-0.32943961 6.265141 0.99367183
-0.34158817 6.4961772 -0.56912696
-0.33218792 6.3385024 1.233771
-0.33764967 6.4643044 -0.33924171
-0.34516397 6.6303797 1.5328164
-0.32772082 6.3165412 -0.11040393
-0.28770187 5.5640273 1.4928683
-0.21399188 4.2388797 -1.1372509
-0.31970802 6.3549938 0.11106712
-0.23866381 4.7606401 -1.1004605
-0.3343434 6.6924586 0.35117432
-0.27447984 5.4941869 -1.0692936
-0.33176866 6.6642594 0.58376914
-0.31926441 6.4357648 -1.0205785
-0.30971202 6.2652416 0.77021432
-0.32014292 6.4992523 -0.79897547
-0.30824441 6.2800641 0.99586189
-0.31959218 6.5112596 -0.57034713
-0.31006172 6.3396235 1.233771
-0.31547016 6.4734235 -0.33966038
-0.32192126 6.6295977 1.5323665
-0.29620063 6.1219049 -0.10698325
-0.26883733 5.5765748 1.4959742
-0.19991834 4.2550392 -1.1413921
-0.29845634 6.3760467 0.11141616
-0.2225903 4.7731242 -1.10316
-0.31005159 6.6736336 0.35012761
-0.25511619 5.4911895 -1.0685304
-0.30896285 6.6753278 0.58464068
-0.29880053 6.4802523 -1.0274616
-0.28847629 6.2801652 0.77192044
-0.29781559 6.5082622 -0.79995042
-0.28587258 6.2712355 0.99429762
-0.2969538 6.5143261 -0.57052147
-0.28792873 6.3406672 1.233771
-0.29305363 6.4784756 -0.33986974
-0.29851589 6.6248407 1.5310168
-0.27518645 6.1308932 -0.10712288
-0.24980247 5.5871291 1.4985623
-0.18372229 4.2248306 -1.1331098
-0.27732417 6.4030213 0.11186992
-0.20542473 4.7621903 -1.1004605
-0.28632396 6.6646981 0.34960422
-0.23594536 5.4920464 -1.0685304
-0.28523529 6.6664133 0.58376914
-0.27483422 6.4496789 -1.0224558
-0.26688766 6.2890682 0.77289546
-0.27543238 6.5171962 -0.80092543
-0.26381233 6.2682476 0.99367183
-0.27412724 6.5133324 -0.57034713
-0.26579222 6.3416338 1.233771
-0.271272 6.4994144 -0.34091645
-0.27587286 6.6375246 1.5337163
-0.23029938 5.5879674 1.4985623
-0.16974454 4.2447491 -1.1382862
-0.25576559 6.4239311 0.11221898
-0.18941885 4.7784562 -1.1040598
-0.26408339 6.6916008 0.35096496
-0.21646459 5.4849901 -1.067004
-0.2621963 6.6733408 0.58429211
-0.25093052 6.4150691 -1.0168241
-0.24493442 6.2899609 0.77289546
-0.25283352 6.5220852 -0.80141288
-0.24254119 6.2849216 0.99617481
-0.25154483 6.5182314 -0.57069582
-0.2436555 6.3425231 1.233771
-0.2485051 6.4983258 -0.34081176
-0.2532222 6.6520786 1.5368656
-0.23654249 6.242569 -0.10904264
-0.21071804 5.5868063 1.4980446
-0.15478654 4.2414546 -1.1372509
-0.23435777 6.4527621 0.11270764
-0.17203258 4.759613 -1.0995607
-0.24100912 6.7004657 0.35138363
-0.19745678 5.4896359 -1.0677671
-0.23932946 6.6861625 0.585338
-0.22783136 6.3961644 -1.0136955
-0.2230455 6.2927613 0.77313918
-0.23034687 6.5308628 -0.80238777
-0.22101824 6.2975745 0.998052
-0.22886166 6.5210605 -0.5708701
-0.22151279 6.3433347 1.233771
-0.22561349 6.493166 -0.34049776
-0.23027129 6.6607122 1.5386652
-0.21584861 6.2753325 -0.10960111
-0.14049079 4.2574158 -1.1413921
-0.21799693 6.6414113 0.11598869
-0.15516174 4.7523937 -1.0977612
-0.21833335 6.6872544 0.35065094
-0.17842437 5.494216 -1.0685304
-0.2165017 6.7028875 0.58673245
-0.20594546 6.4107413 -1.0158856
-0.20114602 6.2954855 0.7733829
-0.20856301 6.5276227 -0.80190039
-0.20006905 6.2962985 0.99773914
-0.20647337 6.5337687 -0.57191598
-0.20640364 6.56777 1.2772754
-0.20306978 6.4979057 -0.34070709
-0.20793697 6.6536479 1.5368656
-0.19342397 6.2240467 -0.10869358
-0.12591223 4.2424102 -1.1372509
-0.19833234 6.7220507 0.11738489
-0.13951434 4.7567787 -1.0986609
-0.19609603 6.685946 0.35054627
-0.15974467 5.4790778 -1.0654775
-0.19433199 6.7055602 0.58690673
-0.18451314 6.4054656 -1.0149469
-0.18043703 6.3020706 0.77411413
-0.18702731 6.5322475 -0.80238777
-0.17890897 6.2870545 0.99617481
-0.18485999 6.5364089 -0.57209027
-0.18384892 6.5409441 1.2719328
-0.18174519 6.5065293 -0.34112579
-0.18609051 6.6620932 1.5386652
-0.1517572 5.5017529 1.474751
-0.11153863 4.2312179 -1.1341451
-0.17650938 6.7406626 0.11769903
-0.12414813 4.772799 -1.1022601
-0.17389601 6.7305145 0.35284904
-0.14198127 5.4952784 -1.0685304
-0.17183708 6.6962094 0.58603519
-0.16286945 6.390244 -1.0124439
-0.15963936 6.3066039 0.77460164
-0.16457184 6.546752 -0.80409402
-0.15769976 6.3172626 1.0008678
-0.16323452 6.5389781 -0.57226461
-0.16420206 6.6239491 1.2879608
-0.16036256 6.5150833 -0.34154451
-0.16302301 6.670495 1.5404649
-0.096325442 4.2122674 -1.1289687
-0.15266606 6.7272439 0.1174547
-0.10713495 4.757618 -1.0986609
-0.1504439 6.7330775 0.35295373
-0.12262143 5.4878902 -1.067004
-0.14859897 6.702744 0.58655816
-0.14095464 6.4085474 -1.0152597
-0.13805559 6.3269682 0.77703899
-0.14180882 6.5512552 -0.80458146
-0.13569115 6.3197489 1.0011806
-0.14045236 6.5414996 -0.5724389
-0.14116101 6.628407 1.2887239
-0.13799754 6.5335746 -0.34248653
-0.13990231 6.6788163 1.5422645
-0.1286595 6.1937203 -0.1081351
-0.11302313 5.4872265 1.4706099
-0.081622183 4.2125778 -1.1289687
-0.12918088 6.7277355 0.1174547
-0.090525851 4.7579627 -1.0986609
-0.12705451 6.739552 0.35326776
-0.10361353 5.4961357 -1.0685304
-0.12542257 6.7151732 0.58760399
-0.11825318 6.3912253 -1.0124439
-0.11582534 6.3194728 0.7760641
-0.11901012 6.5556803 -0.80506897
-0.11366412 6.3221593 1.0014936
-0.11772311 6.5479264 -0.57296187
-0.11823379 6.6406369 1.2910137
-0.11501872 6.5240316 -0.34196317
-0.11672229 6.687058 1.544064
-0.10728177 6.208128 -0.10837945
-0.093872227 5.4875875 1.4706099
-0.067192063 4.2302217 -1.1336274
-0.10600822 6.7481399 0.11780374
-0.073859632 4.7543526 -1.0977612
-0.10346516 6.73596 0.3530584
-0.084064521 5.4729075 -1.063951
-0.10207044 6.7215471 0.5881269
-0.095917672 6.3896241 -1.0121311
-0.093940563 6.331748 0.77752644
-0.096153162 6.5580406 -0.80531269
-0.091853835 6.3402944 1.0043093
-0.094982684 6.5562658 -0.57365906
-0.095275924 6.656714 1.2940667
-0.09229964 6.5283871 -0.3421725
-0.093353584 6.6854763 1.5436141
-0.085939899 6.2324581 -0.1087983
-0.074714936 5.4878817 1.4706099
-0.052352481 4.2246351 -1.1320745
-0.082551308 6.7564673 0.11794336
-0.057215203 4.7506843 -1.0968614
-0.079973549 6.738277 0.35316306
-0.065238133 5.4967251 -1.0685304
-0.078678548 6.727839 0.58864987
-0.072200641 6.2674546 -0.99273324
-0.07192646 6.3399773 0.77850145
-0.073306471 6.5623059 -0.8058002
-0.069635965 6.332675 1.0030578
-0.072141662 6.5605421 -0.57400775
-0.072334707 6.6844897 1.2994094
-0.069597177 6.5366588 -0.34259123
-0.07003817 6.6877098 1.544064
-0.064202964 6.2347198 -0.1088332
-0.055813584 5.5132217 1.4773391
-0.037436374 4.2054744 -1.1268982
-0.058964536 6.7567139 0.11794336
-0.04069953 4.7586498 -1.0986609
-0.05653717 6.7485018 0.35368642
-0.045985956 5.4890671 -1.067004
-0.055191737 6.7280731 0.58864987
-0.051383592 6.4000144 -1.0136955
-0.049937014 6.3580546 0.78069508
-0.050473772 6.5724468 -0.80701888
-0.047587998 6.3407812 1.0043093
-0.049179103 6.5527849 -0.57331049
-0.049203932 6.7121868 1.304752
-0.046863567 6.5488443 -0.34321922
-0.046745915 6.6957083 1.5458636
-0.042440653 6.2349057 -0.1088332
-0.036438912 5.4940658 1.4721627
-0.022755181 4.2055798 -1.1268982
-0.035380267 6.7568789 0.11794336
-0.02408723 4.7587628 -1.0986609
-0.033059664 6.764636 0.35452381
-0.026864788 5.4970469 -1.0685304
-0.03174502 6.7361941 0.58934712
-0.029044406 6.4001551 -1.0136955
-0.027735636 6.356205 0.78045136
-0.027632516 6.5964046 -0.80994374
-0.025479376 6.3468347 1.005248
-0.02637068 6.5688553 -0.57470495
-0.025729908 6.7005377 1.3024622
-0.024016446 6.5529628 -0.34342858
-0.023422275 6.7094712 1.5490129
-0.020770669 6.2630119 -0.10932188
-0.01726543 5.4960909 1.4726803
-0.0080608763 4.197906 -1.1248276
-0.011799321 6.7609596 0.11801317
-0.0075052409 4.7783051 -1.10316
-0.0094478987 6.7647099 0.35452381
-0.0076775071 5.497107 -1.0685304
-0.0082317609 6.7382565 0.58952147
-0.0066625136 6.3626857 -1.007751
-0.0055408427 6.3463383 0.77923268
-0.0045992997 6.5885205 -0.80896878
-0.0033291508 6.358737 1.0071251
-0.0034412728 6.5728922 -0.57505357
-0.0023391757 6.6927338 1.3009357
-0.001141477 6.5410233 -0.34280053
8.0103092e-08 6.7173076 1.5508126
0.0010824726 6.2190528 -0.10855397
0.0019238514 5.5115724 1.4768215
0.006648337 4.2326822 -1.1341451
0.011813443 6.768959 0.1181528
0.0091283033 4.7549176 -1.0977612
0.014179754 6.7706933 0.35483781
0.011479596 5.4813943 -1.0654775
0.015323938 6.7541833 0.59091592
0.015493013 6.3409405 -1.0043093
0.016634522 6.3542595 0.78020763
0.01839757 6.5884962 -0.80896878
0.018883249 6.3646359 1.0080638
0.01954242 6.5868111 -0.5762738
0.021172639 6.739819 1.3100946
0.021755813 6.5609603 -0.34384724
0.023426041 6.7114205 1.5494629
0.022821983 6.2270098 -0.10869358
0.021208797 5.5231233 1.4799274
0.02136557 4.2210422 -1.1310393
0.0354819 6.776875 0.11829241
0.025727274 4.7548566 -1.0977612
0.037826758 6.7726002 0.3549425
0.03061462 5.4813204 -1.0654775
0.03892187 6.7580733 0.59126455
0.037698954 6.3527002 -1.0061866
0.038913626 6.3700428 0.78215748
0.041493986 6.6042719 -0.81091869
0.041076042 6.3605809 1.0074381
0.042574916 6.59268 -0.57679671
0.04480483 6.7554097 1.3131475
0.044683516 6.5648389 -0.34405661
0.046854917 6.711298 1.5494629
0.04374418 6.1129122 -0.10670401
0.040484171 5.523016 1.4799274
0.035999611 4.2093511 -1.1279335
0.059209 6.7847085 0.11843203
0.042494845 4.7742243 -1.1022601
0.061538395 6.7804155 0.35536119
0.049639754 5.4694014 -1.0631877
0.062513508 6.7578959 0.59126455
0.060021389 6.3683324 -1.0086895
0.061185759 6.3738379 0.78264499
0.064606912 6.6100421 -0.81164992
0.063299716 6.3623743 1.007751
0.065470226 6.5805368 -0.57575083
0.068463407 6.7630649 1.314674
0.067723945 6.5766258 -0.34468466
0.070385247 6.7208362 1.5517124
0.064846501 6.0907273 -0.10632006
0.059597082 5.5073867 1.4757862
0.050647359 4.2053361 -1.1268982
0.082939118 6.7884598 0.11850184
0.058919534 4.7545609 -1.0977612
0.085383572 6.7941389 0.35609388
0.068782024 5.4731207 -1.063951
0.086101174 6.7576365 0.59126455
0.082274817 6.370059 -1.0090024
0.083539866 6.3815255 0.78361994
0.088047095 6.6375647 -0.81506222
0.085769229 6.381866 1.0108796
0.088542759 6.5882373 -0.57644808
0.091965392 6.7549324 1.3131475
0.090847231 6.5883317 -0.34531268
0.09405797 6.7361383 1.5553117
0.086108327 6.0904636 -0.10632006
0.078850202 5.5090771 1.4763039
0.065563574 4.2205868 -1.1310393
0.10669939 6.7921271 0.11857165
0.075393163 4.7465324 -1.0959616
0.10909435 6.7937994 0.35609388
0.088323906 5.5003295 -1.0692936
0.1099497 6.773232 0.59265906
0.10399316 6.338131 -1.0039965
0.10574483 6.3772254 0.78313243
0.11155034 6.6570649 -0.81749964
0.10811416 6.385478 1.0115054
0.11164241 6.5938644 -0.57697099
0.11533785 6.7427926 1.3108579
0.11377384 6.5839806 -0.34510332
0.11764072 6.7396655 1.5562114
0.1087027 6.1661029 -0.10764644
0.0982164 5.5164948 1.4783745
0.080407135 4.2261267 -1.1325922
0.13048628 6.7957125 0.11864146
0.092035703 4.7501373 -1.0968614
0.13288836 6.7973709 0.35630322
0.10729433 5.4882112 -1.067004
0.13375099 6.7807746 0.59335625
0.12623329 6.3436542 -1.0049351
0.12808624 6.3807864 0.78361994
0.13571323 6.7022829 -0.82310557
0.13076465 6.4028363 1.0143212
0.13502337 6.6113625 -0.57853985
0.13976513 6.785531 1.3192534
0.13692319 6.5915303 -0.34552202
0.14104196 6.7333694 1.5548617
0.1300585 6.1576891 -0.10750683
0.11722663 5.5045295 1.4752686
0.094985738 4.2180948 -1.1305215
0.15442911 6.8052115 0.11881598
0.10879568 4.7575803 -1.0986609
0.15543041 6.7968926 0.35630322
0.12645257 5.487803 -1.067004
0.15787728 6.8001857 0.59509945
0.1475924 6.3096027 -0.99961638
0.15073439 6.3961768 0.78556985
0.16032809 6.753366 -0.8294428
0.15147951 6.3806448 1.0108796
0.1582928 6.6188178 -0.57923704
0.16364112 6.7928529 1.3207799
0.15982968 6.5870194 -0.34531268
0.16468959 6.7386799 1.5562114
0.15052797 6.1592226 -0.10754173
0.10930633 4.2022882 -1.1263806
0.17725703 6.8146572 0.11899051
0.12467285 4.7610888 -1.0995607
0.17936414 6.8042955 0.35672191
0.14498171 5.4637771 -1.0624245
0.18129604 6.7876434 0.59405357
0.16735338 6.265636 -0.99273324
